# .PCD v0.7 - Point Cloud Data file format
VERSION 0.7
FIELDS x y z
SIZE 4 4 4
TYPE F F F
COUNT 1 1 1
WIDTH 1642
HEIGHT 1
VIEWPOINT 0 0 0 1 0 0 0
POINTS 1642
DATA ascii
-1.76002 46.116299 -30.2934
-0.84579003 46.094299 -30.273399
0.098246999 46.086601 -30.2153
1.10086 45.955101 -30.1728
2.9454801 46.0965 -29.889999
-9.9257698 45.9702 -29.1752
-7.17383 47.036301 -29.8748
-4.9646001 47.224701 -30.174801
-3.46737 46.162899 -30.213499
-0.35814199 47.037998 -30.2598
0.99070698 46.963501 -30.1334
2.3568101 46.9478 -29.945101
-10.8194 46.930199 -29.011299
-10.6019 48.049599 -29.2066
-9.6848698 48.1408 -29.4772
-8.3226805 47.9151 -29.780399
-7.2007999 47.938702 -29.969101
-6.0769701 47.940201 -30.0931
-4.2694101 47.9245 -30.2808
-2.7006199 47.923401 -30.361799
-1.74975 47.917599 -30.3612
-0.886123 47.891201 -30.3272
0.021128001 47.8787 -30.2605
0.93257397 47.870998 -30.1581
1.8844399 47.876099 -30.014799
-10.5703 49.006199 -29.1819
-9.9625797 48.762798 -29.3993
-9.0681496 48.9356 -29.500601
-8.0867701 48.831699 -29.712601
-7.3154402 48.701099 -29.9028
-6.3572798 48.9114 -29.873301
-4.6993899 48.8032 -30.083401
-3.08255 48.805901 -30.189199
-1.76219 48.790798 -30.2584
-0.99448401 48.655499 -30.2857
-0.051956002 48.799599 -30.127501
0.76439297 48.5821 -30.1313
1.58347 48.797298 -29.9156
-10.7973 49.3088 -28.9981
-10.4379 49.495499 -29.020599
-8.9247799 49.590099 -29.0151
-2.7334199 49.6698 -29.505899
0.82288998 49.141102 -29.9049
-9.8548403 49.5835 -28.873199
-8.0913496 49.617199 -29.0151
-7.03161 49.5214 -29.3318
-1.72003 49.6087 -29.671101
-0.70865202 49.500702 -29.761
-4.3350601 37.767899 -28.683901
-3.5218999 37.8172 -28.889601
-2.5127499 37.820099 -29.0802
-1.48367 37.645199 -29.007401
-0.041928999 37.622501 -29.048901
1.0118099 37.748901 -29.150999
1.90337 37.9077 -29.196199
-14.429 39.031399 -27.930099
-13.3528 38.618999 -28.0116
-12.4365 38.4869 -28.2269
-12.7017 39.0019 -28.6922
-11.5745 38.123901 -28.001301
-9.2786903 38.133301 -28.3342
-8.3096104 38.066799 -28.444799
-7.4098601 37.979301 -28.510599
-6.3524499 37.868401 -28.5348
-5.2555199 38.011799 -28.8311
3.07638 38.121498 -29.120501
4.70614 38.8046 -29.4578
-15.1131 39.515301 -28.0047
-15.1913 40.1259 -28.2565
-14.4856 39.784199 -28.474501
5.7484598 39.003101 -29.372
6.6449699 39.170502 -29.313299
6.4339499 39.756599 -29.814501
7.3938198 39.734299 -29.511999
-15.8667 40.786499 -27.988001
-15.0658 40.883202 -28.4375
-14.3303 40.531898 -28.755199
7.1690502 40.466 -29.833401
8.0215302 40.596401 -29.579901
-14.9138 41.389301 -28.513399
6.9917798 41.683998 -29.9835
-16.2791 41.6539 -27.7729
-15.0726 42.676899 -28.3787
-14.2204 42.4795 -28.783501
7.0533299 42.499298 -29.9876
8.84062 42.2458 -29.357401
-14.4571 43.309101 -28.502701
7.3447399 43.205601 -29.876101
-15.1743 43.889599 -27.8937
-13.2139 44.427502 -28.413601
-12.462 44.5769 -28.637899
-11.7528 44.318699 -29.036501
6.2248902 44.3606 -29.9603
7.15804 44.146099 -29.7353
8.2824898 44.3232 -29.344101
-12.5875 45.3708 -28.3442
-11.6462 45.251999 -28.7048
-10.7874 45.193199 -28.9727
-10.0848 45.073002 -29.190901
4.6543398 45.014 -30.0287
-12.5204 46.401501 -28.3708
-11.5002 46.071201 -28.7132
3.85044 46.182499 -29.685801
4.47651 45.8927 -29.66
6.4304199 45.128101 -29.548901
5.40835 45.882702 -29.4998
-13.4998 46.067299 -27.965401
-13.3205 47.185001 -28.141199
-11.7562 47.707802 -28.8002
3.74471 46.930801 -29.6877
4.6100302 46.6889 -29.504801
5.6053901 47.030998 -29.2286
-13.3681 48.2257 -28.187401
-12.4694 47.978199 -28.548401
3.5779901 47.814701 -29.7321
4.61587 47.5989 -29.4937
5.7245798 48.067799 -29.153099
-14.3494 47.905102 -27.775801
-14.0863 48.906799 -27.7796
-13.255 49.029099 -28.1341
-12.5325 48.832699 -28.4144
-11.4274 48.785599 -28.819099
2.5669 48.778801 -29.7423
3.6178701 48.797901 -29.540701
4.56673 48.4771 -29.4298
5.25349 48.9002 -29.1329
-13.5161 49.457699 -27.813601
-13.1041 49.433498 -28.009001
-10.8088 49.539299 -28.6605
-6.0664701 49.680099 -29.217699
-5.0722799 49.5891 -29.389799
-3.68169 49.4916 -29.6387
0.335334 49.592899 -29.606701
1.24453 49.5788 -29.5109
2.0448501 49.461399 -29.490801
4.00596 49.624599 -28.999201
4.49927 49.118801 -29.2467
-12.7234 49.3619 -28.1474
-11.8114 49.592201 -28.1329
-10.6427 49.966099 -27.924299
-9.5556402 50.116501 -27.754
-8.6661797 49.979698 -28.206699
-7.7600002 50.0056 -28.194901
-6.68152 49.999199 -28.4331
-4.9990201 50.066601 -28.554701
-3.3783801 50.044201 -28.783001
-2.4119401 50.157799 -28.618999
-1.05548 50.084801 -28.879601
0.188696 50.059601 -28.917801
1.10754 50.037102 -28.921101
2.0108399 49.965599 -28.9604
2.9642601 49.666401 -29.1252
-4.4741998 32.312302 -27.8375
-4.4739399 34.3442 -27.896
-3.5066199 33.177502 -27.906401
-3.4779899 34.4067 -27.917101
-4.4836702 35.145 -27.876301
-3.6821401 35.283298 -27.9044
-5.3976402 36.2747 -27.798401
-5.4766502 37.218399 -28.076099
-4.3292198 36.087502 -27.892
-4.64992 37.087399 -28.1255
-3.2203 36.219601 -27.948299
-3.73032 37.045898 -28.215
-2.35128 36.526199 -28.0273
-2.80879 37.0923 -28.3433
-1.74435 37.113499 -28.4366
-0.80334097 36.572601 -28.058901
-3.7999998e-05 36.915699 -28.323099
0.878685 37.107899 -28.464199
-13.2711 37.127602 -26.3538
-12.4463 37.7528 -27.347601
-11.3543 37.6143 -27.4526
-10.4788 37.562901 -27.528
-8.8958502 37.5634 -27.754999
-8.1358204 37.158699 -27.661301
-7.1371598 37.0807 -27.791
-6.2326698 36.862301 -27.8055
1.8037 37.0611 -28.349701
2.78304 37.443199 -28.4839
3.55844 37.8064 -28.6033
-16.258499 39.002499 -26.899401
-15.3493 39.106499 -27.5282
-14.9803 38.444698 -27.0123
4.48283 37.9263 -28.436701
5.4538698 37.7803 -27.8897
6.4755602 38.561001 -28.6154
7.5287399 38.896198 -28.711
-17.120701 39.329399 -26.7162
-16.9725 39.8839 -27.1404
-15.9701 39.837799 -27.693001
8.5599499 39.0648 -28.6078
8.2834101 39.746201 -29.2132
9.25142 39.279499 -28.621401
9.2003603 39.783298 -28.958799
-17.304701 40.726299 -27.1437
10.1046 40.571499 -28.8055
-17.4918 41.6604 -27.059999
8.98736 40.768799 -29.260799
-17.617701 42.555401 -26.936501
-16.2953 42.541302 -27.733999
10.6109 41.865398 -28.640499
-15.2994 43.488899 -28.0527
9.0305405 43.431499 -29.2663
10.4763 43.310699 -28.6889
-16.931601 43.390301 -27.122
-16.166901 44.293301 -27.0665
-15.1863 44.396099 -27.5819
-14.2985 44.208599 -28.0867
9.1206799 44.243099 -29.0994
10.5574 44.2173 -28.517799
-15.2989 45.321499 -27.1947
-14.3119 45.210899 -27.6791
-13.4883 45.0914 -28.0289
7.66923 45.0429 -29.24
-15.185 46.361599 -27.2416
6.58846 46.120602 -29.1129
7.5478702 45.904301 -28.890499
8.45222 46.0956 -28.5359
9.0998096 45.039799 -28.7854
-14.3944 46.103401 -27.5861
6.6533799 47.0951 -28.905001
7.5696001 46.845901 -28.642
-15.9393 48.003502 -27.011
-15.1512 47.960602 -27.4242
7.5829601 47.753201 -28.545099
-15.9013 48.783699 -26.9259
-15.1101 48.649399 -27.353201
6.20644 48.772499 -28.8769
7.1750102 48.719299 -28.5357
-16.1292 49.169899 -26.561701
-15.4488 49.283798 -26.8827
-14.6501 49.4072 -27.192801
4.9049101 49.578602 -28.8661
5.6988201 49.433498 -28.7388
6.61095 49.564602 -28.3132
-14.0082 49.566898 -27.4328
-7.2919598 50.078701 -27.548599
-5.2320199 50.1451 -27.6698
-4.31881 50.1702 -27.727301
-3.3931401 50.191898 -27.8214
-2.47769 50.1838 -27.875299
-1.58392 50.209099 -27.9235
-0.69596702 50.187199 -27.996401
0.20715199 50.1866 -28.051701
1.11229 50.2402 -28.0956
2.01951 50.280201 -28.146601
2.9346299 50.254002 -28.2257
3.8605499 50.166302 -28.281
4.77881 50.076801 -28.285601
5.6778402 49.917099 -28.278299
-4.5260801 1.78971 -27.176201
-3.5738101 1.82336 -27.2551
-3.1667099 3.47683 -27.365801
-2.6876299 1.91044 -27.3076
-4.5918498 3.8791001 -27.2917
-3.2179301 4.9805899 -27.4081
-1.78562 4.5896101 -27.4224
-4.4628901 6.7758002 -27.333099
-3.57146 6.8303699 -27.403
-2.68345 6.7499599 -27.434799
-1.42831 6.8566599 -27.446199
-7.0696101 8.5254097 -27.047899
-6.1276898 8.5321703 -27.1985
-3.95226 8.3305902 -27.4496
-2.7699101 8.2921104 -27.505501
-1.44558 8.27005 -27.489799
-5.7126002 10.0072 -27.249201
-2.67015 9.9345102 -27.533199
0.083498999 9.2925301 -27.436001
-4.4699101 10.4235 -27.385799
-1.25436 10.6385 -27.559401
-7.1844201 11.3355 -27.020599
-5.67729 11.5811 -27.2757
-4.4643602 11.7557 -27.4235
-3.2897501 11.4355 -27.49
-6.6103401 12.8321 -27.212999
-1.63682 12.0796 -27.5571
-0.76284599 12.3007 -27.5529
0.080438003 11.476 -27.5061
-6.4769101 13.6617 -27.259199
-5.43361 13.263 -27.4072
-4.4818501 13.0864 -27.494499
-3.2836699 13.1984 -27.566999
-7.4104199 15.1549 -27.0686
-0.83432001 14.004 -27.571199
0.49805701 14.1255 -27.4856
-5.6817398 14.9593 -27.377399
-3.27649 14.5165 -27.592501
-1.5566601 14.5793 -27.6189
0.900644 15.9762 -27.5688
-7.4621401 16.463301 -27.066299
1.89095 16.2229 -27.472
-6.2527299 16.496401 -27.305
-5.3647499 16.3953 -27.441999
-4.4429898 16.074699 -27.528799
-3.55983 16.4025 -27.606501
-2.2775199 16.6215 -27.669701
-0.30679601 16.764 -27.651199
-9.0548 17.1001 -26.741501
-9.0399799 18.5042 -26.820101
-7.43292 18.250999 -27.200701
-5.7676401 18.083799 -27.487101
-4.1336098 18.079 -27.6835
-2.26841 18.096001 -27.757601
-0.53366601 18.0611 -27.7178
1.88219 17.730301 -27.5366
-8.6100903 19.243999 -26.9377
-6.6197 19.018 -27.371
-5.3452501 18.9872 -27.5569
-3.54498 18.977699 -27.726299
-0.45718899 18.986099 -27.7384
0.936665 18.133699 -27.6506
-8.9737301 21.085199 -26.8276
-4.5729299 19.2591 -27.6325
-2.15802 19.037001 -27.7787
1.6452399 18.9508 -27.5632
1.98084 19.954201 -27.475401
-5.3091302 20.593 -27.547001
-8.0581703 21.0821 -27.0585
-7.13901 20.711901 -27.2442
-6.2053299 20.7227 -27.4156
-3.1358299 20.6611 -27.710199
0.91841799 20.121099 -27.6206
-4.4478402 20.9666 -27.642401
-9.59443 23.906401 -26.759399
-1.71171 21.5495 -27.747299
-0.785155 21.955299 -27.7325
0.072757997 22.253901 -27.687201
1.09919 22.834499 -27.603701
-8.2865696 23.891399 -27.119499
-6.19979 23.4736 -27.509199
-5.31638 23.722401 -27.6348
2.38815 23.8955 -27.441999
-9.9542704 26.5317 -26.680401
-7.1665802 23.630501 -27.349701
-4.43472 24.233601 -27.739901
-3.4860401 24.2274 -27.811501
-2.5852799 24.2659 -27.845301
-1.2275701 24.7222 -27.845699
0.074771002 25.1833 -27.786501
-8.9702797 26.0872 -26.954901
-8.00488 26.5499 -27.2129
-7.11835 26.6113 -27.396799
-6.0336099 26.4238 -27.5567
-1.27203 26.949499 -27.846001
0.977265 25.647499 -27.7071
1.8260601 26.241301 -27.5989
-4.3648701 26.7176 -27.750799
-3.4770999 26.8652 -27.8169
-2.5906301 26.849001 -27.8496
3.09074 26.584801 -27.3748
-7.0881901 28.546499 -27.4699
-5.8656502 28.6367 -27.668501
0.67408597 27.9816 -27.749701
-10.6218 30.691 -26.581301
-3.9140401 29.1073 -27.877001
-2.20191 29.331301 -27.943701
-0.35332999 29.861601 -27.8976
1.99218 28.4196 -27.592899
3.3622899 29.560101 -27.3505
-9.6873798 30.148399 -26.880301
-8.8689899 29.7782 -27.1126
-8.02847 29.7052 -27.313
-7.1126299 30.2715 -27.494101
-5.92488 30.6336 -27.6756
1.02095 30.0334 -27.777201
-7.5776601 31.618999 -27.380301
-3.46731 31.1029 -27.898701
-1.0908099 31.377701 -27.941099
0.62149101 31.505501 -27.834801
2.0782101 31.114401 -27.638399
3.3273201 31.466299 -27.4086
-9.7634001 32.419601 -26.8361
-8.8141098 32.2953 -27.1096
-7.6086898 32.5471 -27.398701
-6.0363798 32.278999 -27.6427
-2.5574501 32.372898 -27.927799
-1.67865 32.5243 -27.9226
-0.77043098 32.518501 -27.899099
3.0550799 32.508301 -27.455099
-6.9651499 33.381199 -27.576099
-5.8906202 34.158298 -27.7509
-1.67161 33.4286 -27.8685
-0.76149398 33.421799 -27.82
0.21055 32.608002 -27.833099
1.61379 32.445 -27.707399
-9.8292503 34.367401 -26.744301
-8.8583298 34.0569 -27.120701
-7.9613199 33.895 -27.374201
-6.9777098 34.237801 -27.5837
-2.5966101 33.726101 -27.8939
-1.67085 34.331902 -27.809601
-0.75848401 34.3237 -27.726601
0.53983802 34.313099 -27.6175
2.1082599 34.195 -27.445299
-9.8903599 35.386902 -26.733801
-8.8965797 35.2798 -27.1014
-7.9756098 35.263302 -27.3696
-7.0599399 35.2356 -27.549999
-5.7318101 35.305698 -27.752001
-2.68082 35.3433 -27.870199
-1.71576 35.224701 -27.788799
-0.80183703 35.213501 -27.7173
0.119903 35.2276 -27.664101
1.59121 35.205002 -27.5471
-10.6866 36.302399 -26.6744
-9.6852198 36.323799 -26.990299
-8.9049702 36.201801 -27.186399
-7.99266 36.186401 -27.4133
-7.08988 36.139198 -27.5592
-6.3109298 36.014198 -27.6532
-2.54055 36.058601 -27.879801
-1.8860199 36.009399 -27.858101
-1.01087 36.0075 -27.8344
-0.126371 36.063301 -27.8449
0.89956301 36.225399 -27.895901
1.92839 36.113201 -27.7617
2.8507199 36.085201 -27.626699
-12.2009 36.855301 -26.5002
-11.5099 36.572102 -26.514799
-11.5137 37.049 -26.8976
-10.7694 37.100201 -27.0956
-9.9780598 36.990898 -27.165501
-9.09834 36.984402 -27.3323
2.6800599 36.806702 -28.0165
3.7810299 36.125999 -27.465799
3.6154201 37.0429 -27.959
-15.0305 37.766899 -26.1479
-14.0904 37.573601 -26.4519
4.7190199 37.086102 -27.608299
5.5257001 37.500198 -27.5851
-16.917801 38.576 -25.9671
-16.9804 38.956402 -26.437
-16.017 38.208099 -26.065201
6.1563601 37.808201 -27.722
7.30128 37.981998 -27.607599
8.24547 37.760502 -27.069201
9.3866301 38.764198 -27.9436
-18.5993 39.394798 -25.789
-18.972099 39.924198 -25.898199
-17.7314 39.017799 -25.9736
-17.930401 39.8494 -26.5296
10.3793 39.0462 -27.8521
10.0353 39.628799 -28.5462
10.973 39.3092 -27.865601
10.814 39.619801 -28.212999
11.3633 39.733398 -27.9188
-18.6661 40.820999 -26.2822
10.9312 40.337399 -28.385401
11.8914 40.652401 -27.8941
-18.828199 41.762501 -26.204201
11.2854 41.4697 -28.321199
-18.4897 42.569199 -26.3591
11.9788 42.309898 -28.0103
-18.7757 43.541199 -25.816
-17.683201 43.506199 -26.586901
12.1155 43.157902 -27.950199
-17.824301 44.377102 -26.0763
-16.941 44.391102 -26.571301
11.7018 44.191002 -28.030701
-17.0252 45.327999 -26.2875
-16.2015 45.099499 -26.730801
10.7789 45.130901 -28.0972
-16.042801 45.955898 -26.7624
9.4028502 45.852798 -28.257999
10.7346 46.008999 -27.7029
-17.538601 47.065601 -26.0446
-16.867399 46.362801 -26.3678
8.5017004 47.0322 -28.267401
9.4277897 46.789001 -27.958799
-17.690001 48.064701 -25.9625
-16.847 47.666 -26.4865
9.0761204 47.7934 -27.952499
-17.394199 48.8055 -25.9883
-16.7033 48.590801 -26.4807
8.2466202 48.6124 -28.1341
-17.5119 49.209999 -25.6075
-16.747801 49.298 -25.996
-15.7554 49.642601 -26.1656
7.5865302 49.4114 -28.082001
-9.6831303 49.998798 -26.384701
-8.7470798 50.0401 -26.795099
-7.8189702 49.940701 -26.815001
-6.99229 49.9039 -26.8848
-5.3815699 49.917702 -27.0138
-3.4084101 49.896099 -27.074499
-2.0912199 49.907799 -27.190001
-0.69855201 49.9361 -27.256201
0.202709 49.982399 -27.2771
1.10586 50.047798 -27.288
2.02214 50.128601 -27.2941
2.9523599 50.233299 -27.331499
3.87637 50.2966 -27.3932
4.7877698 50.287201 -27.444599
5.6958299 50.275799 -27.4942
6.60642 50.1651 -27.5462
7.53337 49.9851 -27.5639
8.5289402 49.5993 -27.5618
-3.29759 -28.130301 -26.794701
-1.82661 -28.8564 -26.860701
-0.967206 -28.8993 -26.8939
-4.5146999 -27.898899 -26.6542
-2.56776 -28.0588 -26.883801
-1.8918999 -28.044701 -26.9207
-5.3748102 -27.002899 -26.629801
-4.4533701 -26.9578 -26.7733
-2.9061501 -27.288099 -26.8843
-1.99497 -27.2384 -26.876699
-1.22983 -27.970699 -26.8925
-5.3309202 -26.062201 -26.606501
-4.5603399 -26.1905 -26.703199
-3.8183801 -27.023701 -26.829599
-2.87433 -26.3377 -26.789101
-3.1847701 -24.363701 -26.693199
-4.6017699 -24.120199 -26.5972
-3.6687701 -22.3521 -26.717501
-5.4771399 -20.5802 -26.5811
-4.2975001 -20.881901 -26.696699
-2.37521 -20.883499 -26.8057
-6.2677798 -19.163601 -26.5142
-5.3460999 -19.201799 -26.667299
-4.2890501 -19.076099 -26.7913
-1.52538 -19.490499 -26.8643
-0.075015999 -18.5786 -26.817801
-6.6960301 -17.0215 -26.479
-5.4163098 -17.3773 -26.680901
-4.08042 -17.783501 -26.8332
-2.8205099 -17.708799 -26.9104
-1.85392 -17.184799 -26.9324
-0.44947699 -17.230499 -26.893999
-7.3839302 -15.2951 -26.338301
-6.3666201 -15.3395 -26.5392
-5.1164799 -15.5514 -26.7271
-3.6669099 -15.7847 -26.858299
-2.7254801 -15.6234 -26.9142
-1.83966 -15.6911 -26.933399
0.48902699 -15.5275 -26.837099
-4.0348001 -14.5485 -26.878201
-0.81054598 -15.5489 -26.921801
-7.7462101 -13.7841 -26.351601
-5.9909601 -14.3762 -26.641199
-2.90732 -13.7095 -26.9718
-1.92913 -14.1519 -26.983101
-0.53631699 -13.4437 -26.967501
0.87092602 -13.7606 -26.886101
-8.1960602 -12.5087 -26.261101
-5.8169398 -12.6427 -26.702499
-4.5879502 -13.3155 -26.843
-3.6555901 -11.9689 -26.9748
-1.78988 -12.1394 -27.0424
-0.489968 -11.7668 -27.036699
0.76122499 -12.0348 -27.005199
1.75499 -12.6575 -26.854099
-7.1255498 -12.3148 -26.5
-5.80056 -11.1095 -26.7936
-4.5967898 -11.467 -26.9231
-3.1918099 -10.9502 -27.0221
-1.1558 -10.4082 -27.0732
0.84470201 -11.1428 -26.988501
1.52759 -11.7937 -26.924601
1.8536201 -10.7782 -26.806101
-8.1203804 -10.0825 -26.3668
0.88409197 -10.2282 -27.004
1.79131 -9.7502098 -26.8508
-7.5224199 -8.9038696 -26.5522
-6.4135799 -9.1009502 -26.7528
-5.5150499 -9.2252102 -26.881599
-4.5078201 -9.6684599 -26.990601
-3.2137699 -9.6258602 -27.0816
-1.87353 -9.5602398 -27.1015
-9.1091604 -7.2306499 -26.136299
-5.9272199 -8.1370897 -26.808001
-4.1167798 -8.12988 -27.0159
-0.039237998 -9.7115002 -27.059
-8.1002598 -7.4227099 -26.3848
-5.7548299 -7.1999502 -26.841299
-4.1403098 -7.2377901 -27.0329
-2.7395999 -7.6566801 -27.0958
-1.82702 -7.5889301 -27.1094
-1.05234 -7.5907798 -27.103901
0.91584098 -7.62252 -26.9765
-7.12745 -7.3290401 -26.5977
1.91881 -7.45611 -26.8325
-8.9778004 -5.5760899 -26.2616
-7.8883801 -5.4356799 -26.530199
-5.94205 -5.5545301 -26.886299
-4.19874 -6.1365399 -27.087601
-2.7423601 -5.8428402 -27.193501
-1.85697 -5.7646399 -27.201
-0.035333999 -6.9336901 -27.075399
0.91947001 -5.9055901 -27.0354
-3.81182 -5.1799798 -27.132099
-0.90895802 -5.4476099 -27.1856
1.70899 -5.0858998 -26.9855
2.6138799 -4.4644699 -26.8578
0.9048 -4.0023499 -27.1441
2.71016 -3.4320199 -26.860399
-9.88202 -2.46733 -26.0569
-8.9527197 -3.20364 -26.3046
-8.1114597 -3.37848 -26.503099
-6.5876698 -2.9137499 -26.830799
-2.70364 -3.7202301 -27.2031
-1.4281 -3.6890099 -27.2278
1.81761 -3.5139699 -27.0725
2.72246 -2.5150499 -26.8566
-5.3788099 -2.8867199 -27.023001
-4.3952799 -3.30954 -27.1245
0.93709999 -1.96881 -27.2342
1.83358 -2.0701499 -27.124901
-9.1911297 -0.88345802 -26.3333
-1.58716 -1.30205 -27.318501
-0.088721998 -0.84098297 -27.290501
0.91599399 -0.95942801 -27.247801
3.20595 -1.11974 -26.7617
-8.0636501 -0.94888097 -26.630699
-7.2416101 -0.89882702 -26.8067
-5.9622898 -0.74848098 -27.016701
-4.4895101 -0.62213498 -27.210899
-3.2820001 -0.73331898 -27.3048
1.88528 -0.92446703 -27.124399
-6.8866701 0.91966498 -26.842899
-5.47614 0.563034 -27.075701
-2.7585299 0.400334 -27.312599
-1.46232 0.50015497 -27.318899
0.84905702 0.52644402 -27.1929
1.94394 0.75302798 -27.032101
-9.0085201 1.28649 -26.3571
-8.0750103 1.35932 -26.594101
-6.7905998 1.81012 -26.876801
2.8617599 0.56405503 -26.855101
-9.8398199 1.6358 -26.116501
-5.4903402 1.9128799 -27.079599
-1.77703 1.9146 -27.321501
0.96081197 2.1313901 -27.1696
1.8417701 2.0451801 -27.056601
-0.92777598 1.98068 -27.3013
0.001695 2.0027201 -27.2421
2.79618 2.9358301 -26.9466
3.67854 3.5627301 -26.8232
-9.7704697 4.0540099 -26.263901
-6.2195201 3.58828 -27.0644
-0.405527 4.69491 -27.378
1.4423 4.0811601 -27.2008
-10.1295 6.4773798 -26.156401
-9.0763597 4.0401902 -26.466499
-8.0990496 3.9781101 -26.710199
-7.1747799 3.6465299 -26.899401
-5.85253 6.22716 -27.1534
2.65205 4.8562799 -27.088699
1.87468 5.9725199 -27.273899
2.7412 6.0198998 -27.118601
3.63517 4.71946 -26.882799
4.33637 5.9018502 -26.663401
-9.0028095 6.5318198 -26.5236
-8.15061 6.6394 -26.746599
-6.9187999 6.83148 -27.003099
1.01257 6.6701102 -27.3971
3.9821899 7.3683801 -26.7432
-10.1834 8.3781996 -26.208401
1.86519 7.72124 -27.3486
2.71243 7.3146 -27.1429
4.1226501 8.1076603 -26.733801
-8.9569101 8.4837503 -26.6192
-7.9944801 8.3609304 -26.8624
0.96562701 8.3512201 -27.4119
1.8863699 8.9930897 -27.3069
2.9116499 8.9092102 -27.076799
-9.9350004 9.7221203 -26.308201
-7.9590602 9.8575201 -26.853201
1.88267 9.9050198 -27.264999
3.4535699 9.8650999 -26.957199
-9.8593397 11.2718 -26.3799
-8.9477701 10.2786 -26.6124
-8.0671597 10.9507 -26.84
0.97691 10.17 -27.3808
2.7939899 11.1515 -27.1283
3.9795401 11.4978 -26.892599
-11.6453 13.9742 -25.7777
-7.8859601 13.4213 -26.9676
1.79152 11.6539 -27.3036
-10.5579 12.117 -26.1551
-9.8086596 13.1899 -26.431999
-8.9407797 13.182 -26.7057
1.53653 13.7035 -27.375999
3.4537201 13.2628 -27.084299
4.6472201 13.4752 -26.837299
-9.9980898 14.6958 -26.378201
2.79073 14.3777 -27.2456
3.54598 14.243 -27.1189
1.90116 15.3206 -27.4296
2.81427 15.2727 -27.286501
3.6963999 15.0498 -27.094999
4.3810201 14.4002 -26.9252
5.0447402 15.5161 -26.659401
-10.6919 15.9739 -26.198601
-8.9745302 15.0922 -26.680599
2.8418601 16.191099 -27.277599
3.7624199 15.9772 -27.024401
4.6831799 16.445299 -26.700199
-11.2061 17.186399 -26.0513
3.8933001 17.030399 -26.9384
-9.8153601 17.129101 -26.527201
2.7645099 17.448601 -27.298401
3.61917 17.873899 -27.031601
-11.5155 18.941601 -26.0287
3.0927899 19.5718 -27.241301
4.0710101 18.667601 -26.9443
-12.574 21.2997 -25.598301
-10.7836 18.8081 -26.291901
5.2122102 19.444799 -26.6931
-10.2097 21.348801 -26.481501
1.82938 21.205299 -27.499201
3.08076 20.569401 -27.2526
5.24018 21.3351 -26.7605
-13.0326 23.741899 -25.439899
2.9230199 22.9519 -27.343901
3.8403299 23.0625 -27.1628
4.6361198 22.8946 -26.9711
5.4389801 22.692699 -26.741501
-11.6625 21.360399 -25.9625
3.7753999 24.736099 -27.186501
4.6431599 24.6481 -26.9697
5.5015502 24.8279 -26.720699
-10.6856 24.631901 -26.417801
-12.0155 25.7166 -25.9373
-12.4148 28.629101 -25.8134
4.7068901 27.828199 -27.0186
-13.2594 31.125999 -25.5518
-10.9589 28.215599 -26.3757
5.6480098 28.542101 -26.773899
-12.2932 30.9627 -25.9632
-11.5128 31.0984 -26.2644
-13.3443 32.575298 -25.500999
-12.2317 32.536499 -25.9631
4.7211099 32.109699 -27.094
5.6397099 32.166302 -26.8463
-13.323 33.4715 -25.4575
-12.2815 33.395401 -25.882799
-10.3407 33.169102 -26.628401
4.3499799 33.268299 -27.129101
-12.4403 34.359901 -25.7096
-11.086 34.398201 -26.2251
3.1247301 34.422798 -27.263399
3.86555 34.296902 -27.1129
4.7279 34.055599 -26.9314
5.3982902 33.3727 -26.8456
5.73983 34.389599 -26.689899
-12.5872 35.365601 -25.641899
-11.7098 35.125702 -25.9429
-10.8999 35.267502 -26.2903
2.9240699 35.207802 -27.3592
3.84641 35.208801 -27.182699
4.8698301 35.098099 -26.932199
-13.4301 36.243999 -25.580601
-12.553 36.302299 -25.9762
-11.6563 36.0228 -26.180799
4.7467599 36.103699 -27.1989
5.8380098 35.338902 -26.716101
6.3888001 36.104801 -26.688101
-15.0446 36.9333 -25.205
-14.1816 37.051701 -25.8438
5.5992899 36.9739 -27.234699
-15.9034 37.543999 -25.2693
-16.7987 37.955898 -25.155899
6.6068702 37.042801 -26.950001
7.5513601 37.349602 -26.875
-18.760799 38.823399 -24.9863
-17.7411 38.375801 -25.066099
9.1138601 37.791401 -26.8337
10.1977 38.350498 -27.041
11.2182 38.936199 -27.215599
-20.312099 39.722301 -24.7742
-19.382299 39.3769 -25.214001
-19.592699 39.8634 -25.440201
11.9954 39.217098 -27.056999
12.024 39.7369 -27.4541
12.7702 39.538898 -26.851999
-20.5119 40.824001 -24.956301
-19.593901 40.496899 -25.598499
12.868 40.532902 -27.2885
-20.332899 41.716702 -25.125299
-19.5555 41.416 -25.6996
13.4053 41.4235 -27.171
-20.5404 42.5448 -24.8076
-19.4697 42.4478 -25.677401
13.5439 42.510502 -27.183201
-19.687 43.293201 -25.2229
13.7343 43.523499 -27.0576
-19.540001 44.108501 -24.996599
-18.6759 44.553101 -25.4702
12.7509 44.102001 -27.529301
13.6001 44.3508 -27.035999
-17.936001 45.157101 -25.815399
12.351 45.148102 -27.4095
-18.7052 45.521999 -25.292999
-17.868999 46.1073 -25.810699
-18.507799 47.187302 -25.444599
10.9762 46.830799 -27.2948
12.0541 45.993198 -27.129
-18.503201 48.214901 -25.416201
-6.75038 47.963402 -25.779699
-5.7505598 47.526798 -25.8234
-4.9456801 47.439701 -25.9032
-5.4102502 48.1605 -26.1126
-4.1108999 47.9613 -26.183201
-2.1314399 47.327499 -26.028999
-2.4695899 48.020599 -26.3002
-1.32442 47.4105 -26.0592
-1.45128 47.969299 -26.310499
-0.57083303 47.9058 -26.243099
10.154 47.684601 -27.4795
11.2642 47.879799 -26.8734
-19.460199 48.652802 -24.7188
-18.9233 48.576599 -25.089899
-7.8396401 48.898701 -25.8258
-6.8224802 48.9203 -26.066299
-6.01964 48.8106 -26.191
-5.1363001 48.8209 -26.3524
-4.24509 48.793999 -26.433399
-1.55431 48.752701 -26.576099
-0.27785599 48.736 -26.5364
1.32301 48.748798 -26.414
9.4046803 48.7878 -27.585199
10.6504 48.625198 -27.032801
-19.4506 49.149899 -24.4209
-18.4683 49.186298 -24.976101
-9.5146999 49.408798 -25.6567
-8.69629 49.190498 -25.679501
-8.72861 49.5816 -26.0399
-8.0276403 49.6339 -26.308599
-7.2424698 49.5098 -26.352301
-6.3147502 49.509399 -26.4851
-5.4296398 49.518398 -26.5975
-4.46663 49.672298 -26.868
-3.52701 49.433899 -26.6957
-2.6861 49.4799 -26.7929
-1.04266 49.4716 -26.8542
0.60658199 49.495399 -26.788
1.80735 49.546101 -26.679899
9.3723602 49.556599 -27.288099
-12.0234 49.987202 -25.5991
-11.3226 50.139 -26.0207
-11.1553 49.857201 -25.542299
-10.751 50.205502 -26.544399
-10.4902 49.886799 -25.8515
3.8666101 49.988201 -26.600599
4.7954402 50.093201 -26.6021
5.7256298 50.176102 -26.6222
6.64467 50.259499 -26.671801
7.5573001 50.260799 -26.7276
8.47647 50.196899 -26.783701
9.3888597 50.028 -26.8027
10.2873 49.512001 -26.8454
-7.2582798 -35.123199 -25.5947
-6.2435999 -35.6329 -25.4692
-6.2498598 -35.000401 -25.989
-5.1958699 -35.689899 -25.6073
-5.4506001 -35.0952 -26.061501
-4.2686 -35.705299 -25.684
-4.54003 -35.118 -26.0982
-3.38445 -35.721802 -25.8183
-3.63498 -35.1269 -26.123501
-2.5302401 -35.763599 -25.9496
-2.7370601 -35.145699 -26.150299
-1.8685 -35.690601 -25.9888
-1.86832 -35.171501 -26.1113
-1.09483 -35.325298 -25.957001
-8.0910301 -34.2243 -25.716801
-7.1603799 -34.172199 -26.0385
-6.39258 -34.2915 -26.1982
-5.5034699 -34.304798 -26.3459
-4.6040401 -34.318199 -26.3151
-3.69613 -34.3241 -26.2633
-1.88367 -34.3489 -26.187799
-0.99041098 -34.410801 -26.092899
-8.9900599 -33.336201 -25.590599
-8.0491304 -33.265099 -25.9701
-7.2810898 -33.391201 -26.146299
-6.4057798 -33.4105 -26.2915
-5.5186 -33.428001 -26.368799
-4.6133499 -33.436199 -26.3442
-3.7049401 -33.441898 -26.2906
-2.79704 -34.314701 -26.236099
-1.8902 -33.455898 -26.2479
-0.97604501 -33.486698 -26.2124
0.049589999 -33.609001 -26.1476
-9.0691605 -32.248699 -25.734699
-8.1883898 -32.469299 -25.9965
-7.2974401 -32.501301 -26.1532
-6.4105601 -32.521599 -26.233999
-5.5124998 -32.529202 -26.297199
-4.6092901 -32.5359 -26.3074
-3.7029099 -32.541199 -26.285101
-2.7966299 -32.545799 -26.2812
-1.27352 -32.6917 -26.2945
1.4926 -32.774601 -26.2645
2.61359 -32.623299 -26.2803
-9.7603998 -33.070599 -25.3221
-9.8502998 -31.468901 -25.571699
-8.9347 -31.4163 -25.802099
-8.1830502 -31.565399 -25.936199
-7.3004799 -31.610901 -26.0481
-6.4026799 -31.622299 -26.1341
-5.50284 -31.629101 -26.1987
-4.6033101 -31.634199 -26.267099
-3.7035301 -31.6392 -26.314699
-2.8011999 -31.641899 -26.344801
-1.28822 -31.7085 -26.3967
-0.072503 -32.313801 -26.359699
0.80770898 -31.694099 -26.4622
1.70979 -31.7465 -26.4165
2.5787101 -31.9266 -26.350401
3.1970201 -31.5361 -26.2628
-10.6169 -30.679399 -25.3752
-9.7997398 -30.5452 -25.602699
-9.0415297 -30.6591 -25.711
-7.6637902 -30.633101 -25.882099
-6.3956699 -30.7227 -26.041201
-5.5009499 -30.7264 -26.161699
-4.6042099 -30.7318 -26.2722
-3.7188101 -30.7491 -26.368999
-2.8408 -30.752501 -26.464199
-1.23146 -30.662901 -26.582899
-0.092024997 -30.757999 -26.573
0.80256099 -30.805201 -26.562
1.5697401 -30.961901 -26.524
2.50331 -30.9095 -26.3605
-10.8345 -29.821899 -25.254101
-9.9688797 -29.827801 -25.462799
-9.0791903 -29.7836 -25.598499
-8.1753101 -29.803801 -25.723301
-7.2835202 -29.814501 -25.870199
-6.4068298 -29.831301 -26.024401
-5.10952 -29.828699 -26.248501
-3.7467699 -29.8533 -26.462099
-2.3401899 -29.9562 -26.6514
-1.12113 -29.735001 -26.770599
-0.110522 -29.8419 -26.711901
0.81515002 -29.907499 -26.604799
1.71101 -30.1499 -26.4814
2.7454 -29.791901 -26.197901
-8.1993103 -28.8974 -25.708799
-7.2950301 -28.9247 -25.882999
-6.0471601 -29.0158 -26.165899
-4.28163 -28.925699 -26.507099
-0.16109601 -28.896799 -26.8095
0.81181997 -28.9958 -26.6157
1.73046 -29.2201 -26.4158
-9.0594196 -27.746401 -25.590099
-8.2000599 -27.9702 -25.8092
-7.2984099 -28.039101 -26.0152
-5.75843 -28.082199 -26.3965
-0.57849199 -28.5236 -26.878401
1.55196 -27.3349 -26.3904
2.31109 -28.6408 -26.248301
2.6185 -27.8209 -26.1915
-9.7141199 -27.073099 -25.4368
-8.17834 -27.045 -25.9454
-7.2830501 -27.1306 -26.1954
-6.3955002 -27.360701 -26.383499
0.67430198 -27.0916 -26.552
-10.0155 -25.653099 -25.3778
-8.38766 -26.1336 -25.912201
-7.27877 -26.2054 -26.235201
-6.2741599 -26.3067 -26.4597
-1.74648 -26.125799 -26.7311
-0.244642 -26.1397 -26.614799
1.99465 -26.374001 -26.3214
-6.3905902 -25.324699 -26.374599
-4.5745101 -25.282 -26.6103
-3.57897 -25.431801 -26.677299
-2.5134001 -25.3174 -26.699301
-0.73750299 -25.267599 -26.6373
1.79026 -25.3633 -26.377199
-5.5402498 -25.2001 -26.4977
2.84407 -25.239799 -26.219299
-9.9167299 -23.5189 -25.487101
-8.9489298 -24.4214 -25.760599
-8.0506001 -24.948 -25.9925
-7.2354798 -24.859699 -26.181299
-5.4228301 -23.146299 -26.5182
-1.89545 -25.081301 -26.696199
-0.62510198 -23.601101 -26.708799
0.54365301 -25.222401 -26.538099
3.4816 -23.459999 -26.2022
-6.4527202 -24.1292 -26.3395
1.8481801 -22.874599 -26.5737
2.6228499 -23.0501 -26.4359
3.5713699 -22.416401 -26.171499
-9.9237204 -21.6742 -25.516199
-6.5433302 -21.483801 -26.366501
-0.37492299 -21.816099 -26.77
0.86742699 -21.9597 -26.7269
1.7869 -21.7577 -26.619301
2.6926899 -21.957199 -26.4189
3.93244 -21.432501 -26.0179
-9.0377798 -21.2316 -25.7981
-8.1083899 -21.3428 -26.039801
-10.9343 -18.7743 -25.253
0.0070659998 -20.1733 -26.7899
0.855075 -19.9977 -26.7609
1.7567101 -20.489201 -26.613899
2.8355801 -20.8316 -26.314199
-7.6279302 -19.211 -26.237
1.78667 -19.0487 -26.6068
3.3506801 -19.7024 -26.1915
-9.8513603 -19.6255 -25.618401
-9.0074997 -19.3267 -25.8841
0.86750001 -18.3344 -26.739401
3.1639299 -18.271601 -26.304501
-10.8125 -16.9177 -25.3645
0.85875201 -17.211599 -26.7836
1.76487 -18.0205 -26.626101
-9.9584103 -17.068899 -25.655399
-8.5280399 -17.0312 -26.070299
-10.758 -15.2534 -25.393
-9.9252501 -15.3018 -25.680401
-8.77981 -15.4611 -26.010401
2.76352 -15.7067 -26.5256
3.2808299 -16.7384 -26.385099
4.4099898 -15.3616 -26.171499
1.85753 -15.3374 -26.6866
2.7082701 -14.5509 -26.599001
3.5947199 -14.7605 -26.404699
4.5232201 -14.3264 -26.1294
-11.521 -12.873 -25.170401
-9.0244799 -14.2088 -26.0068
1.78705 -13.5909 -26.7999
2.7321801 -13.631 -26.6152
3.64046 -13.8377 -26.382799
4.5633898 -13.3828 -26.0805
-10.8022 -13.0479 -25.4505
-10.0274 -13.1486 -25.718901
2.70943 -12.7013 -26.618401
3.7643099 -12.7935 -26.306299
-9.0858498 -12.5439 -26.0263
2.6180201 -11.6511 -26.6332
-11.7143 -8.9420605 -25.201599
-9.9695597 -11.3591 -25.803801
-8.9529104 -9.0900698 -26.1861
2.8661399 -10.726 -26.529699
3.96649 -11.0851 -26.2579
-10.7748 -11.4158 -25.513201
-10.7987 -8.9901304 -25.572001
-9.86061 -9.1631098 -25.9079
2.5392799 -9.2536602 -26.6924
3.6805301 -9.1170902 -26.456301
4.9787798 -9.2749205 -26.1236
-9.9504499 -7.3754902 -25.871
3.3968599 -7.4809198 -26.5543
-10.775 -7.27806 -25.582199
-9.8523903 -5.8439798 -25.9835
4.6307201 -7.2961602 -26.2729
5.3398299 -6.3308702 -26.101299
2.76934 -5.5102601 -26.7894
3.6703501 -5.6003699 -26.6003
4.5598998 -5.7130599 -26.356701
-12.0321 -4.2375302 -25.177099
-9.8010597 -4.2895699 -26.035
-10.7435 -4.4131198 -25.707001
3.5664201 -4.0510302 -26.6099
5.1322899 -3.8016801 -26.122601
-12.5393 -2.52126 -25.006701
-11.2627 -2.62251 -25.553101
4.1331501 -2.5039101 -26.439501
5.4587302 -2.32184 -26.072399
-12.5112 -0.64462799 -25.1099
-10.7189 -0.769279 -25.8349
-11.6342 -0.70959902 -25.488701
4.5633898 -0.65118599 -26.4342
5.5907402 -0.59707999 -26.135
-10.6676 1.33944 -25.8398
-12.4912 1.52435 -25.105499
5.6543498 1.2145 -26.194401
-11.6011 1.55327 -25.485001
-10.586 3.7788 -25.966
3.3775899 2.0104599 -26.7913
4.4912601 1.15615 -26.496099
5.5946698 2.63923 -26.283199
4.62321 3.5334799 -26.608
5.41886 3.40254 -26.369301
6.3675599 3.60234 -26.011801
4.6347098 4.4607801 -26.6063
5.7129302 4.4205999 -26.242201
-13.3982 5.9483199 -24.8386
-12.4759 3.74981 -25.2017
-11.5044 3.9906099 -25.6129
6.19138 5.3515701 -26.030399
5.0889401 6.4217901 -26.400499
-13.3372 7.5118599 -24.8887
6.3325601 7.1721601 -26.0243
-12.4466 7.2821398 -25.295
-11.5554 7.2140799 -25.6577
-14.0369 10.4917 -24.627899
-11.1455 9.5889597 -25.877701
5.9507899 8.6894302 -26.2363
6.2575202 10.235 -26.197399
-11.6184 10.9774 -25.727501
5.3488798 11.1041 -26.525101
-12.4884 10.5426 -25.347099
6.5455699 11.6712 -26.1947
-12.3779 12.6136 -25.440001
5.58146 12.5859 -26.542801
6.5434098 12.573 -26.2215
-13.4521 12.1849 -24.9564
5.5699902 13.5038 -26.5739
6.5433502 13.4789 -26.2132
5.47721 14.5244 -26.566299
-14.1462 16.4918 -24.742399
-12.4809 14.3437 -25.4594
6.7708201 15.1319 -26.066601
-13.2096 15.7435 -25.1859
-12.3911 16.850599 -25.572901
6.13627 16.166599 -26.2761
-13.3566 17.1577 -25.148199
4.8151798 17.2861 -26.655899
6.39046 17.0467 -26.2272
-12.357 18.813999 -25.680401
6.2702198 17.982201 -26.315701
-14.2965 18.7456 -24.751499
-13.3199 18.805599 -25.246401
-14.1547 20.4468 -24.8407
7.10566 19.2686 -26.096201
-13.3352 21.2827 -25.2619
7.51336 21.382601 -26.0481
6.3469601 22.046101 -26.462799
7.1869202 22.4802 -26.17
7.5260601 23.4669 -26.0044
-14.2515 23.5149 -24.848801
6.41571 24.239901 -26.4079
-14.0839 26.15 -25.0177
-13.2797 26.4662 -25.406099
7.58254 24.855801 -25.994101
6.5464201 26.816401 -26.442499
-13.3686 28.850201 -25.398899
7.5531902 28.151699 -26.1159
-15.6008 30.485201 -24.3174
-14.2468 28.857201 -24.9701
6.5639 29.3354 -26.489901
-14.169 31.244301 -25.114799
8.5550203 29.6576 -25.757299
-15.0195 32.5583 -24.6754
-14.1833 32.622002 -25.1057
6.5493398 31.7605 -26.5578
7.41328 31.316799 -26.2334
-14.5395 33.636002 -24.8866
-14.1944 34.385201 -24.9671
-13.3213 34.359001 -25.3633
6.6675501 33.9972 -26.461
7.4945002 33.554901 -26.1998
8.4012098 34.330002 -25.8454
-14.4401 35.265598 -24.7904
-13.5652 35.2812 -25.228399
6.6254401 35.190201 -26.497499
7.5097699 34.965698 -26.209101
8.4080296 35.4249 -25.893
-15.306 35.265598 -24.3179
-15.1079 36.114799 -24.5872
-14.2322 36.103699 -25.108101
7.5840602 35.987801 -26.2981
-15.7462 36.709 -24.523899
-16.450701 37.181999 -24.474001
-15.8346 37.104401 -24.796801
7.3565602 36.767399 -26.5888
8.5620499 36.3428 -26.017799
8.23174 37.0056 -26.476299
-17.569201 37.6674 -24.2059
9.3177004 37.002998 -26.0401
10.0592 37.6474 -26.291
-19.6598 39.0229 -24.6045
-18.5723 38.131001 -24.0737
11.0256 37.911499 -26.2041
11.9599 38.676601 -26.506599
-21.2747 39.307301 -23.7201
-21.4573 40.048901 -24.0434
13.8414 38.747398 -25.5723
13.8516 39.667198 -26.3195
13.6376 40.402599 -26.7952
14.6495 40.653198 -26.2418
-21.327101 42.5112 -24.1329
15.5948 41.5303 -25.8318
14.8247 42.398201 -26.4189
-20.2829 43.516499 -24.633699
14.7727 43.324501 -26.454
-20.430401 44.287102 -24.264299
-20.440001 45.208599 -24.1112
-19.507401 45.002899 -24.8057
13.8147 45.065601 -26.696899
14.4975 44.238602 -26.5324
14.6563 45.148899 -26.1525
-20.4576 46.1534 -24.056999
-19.5201 45.915699 -24.742001
13.0646 45.946899 -26.6339
13.8649 45.580002 -26.3953
13.8859 46.028999 -26.083599
-20.6175 47.128399 -23.9223
-19.266199 47.937401 -24.946501
-9.2962503 46.682201 -24.621401
-9.5044403 47.330799 -24.8869
-8.4005699 46.5317 -24.7299
-8.6382399 47.132099 -25.0264
-7.5239301 46.462898 -24.8272
-7.87887 46.9743 -25.128799
-6.6441202 46.462299 -24.933201
-7.0868001 47.0658 -25.307699
-5.8500199 46.462601 -25.07
-6.1785102 47.019402 -25.4641
-5.2870402 46.935101 -25.5511
-4.2539902 47.078701 -25.7297
-2.9568 46.380402 -25.1278
-3.11327 47.0672 -25.804399
-1.4579 46.435799 -25.1397
-2.4044499 46.8298 -25.669901
-1.6072201 46.9109 -25.710899
-0.218592 46.561901 -25.178699
-0.60153401 47.101601 -25.7773
0.68785697 46.613701 -25.198999
0.41373 47.104 -25.7183
1.5075099 46.676498 -25.178301
1.3326401 47.120201 -25.6369
12.1196 46.886398 -26.6891
13.0355 46.856499 -26.154301
-20.1021 48.055901 -24.310801
-10.3149 47.010101 -24.4734
-11.3915 47.818802 -24.405199
-10.3356 48.0406 -24.820101
-9.7537098 48.740799 -25.2096
-7.9649301 47.8246 -25.4501
0.323421 47.868801 -26.1644
1.73035 47.830502 -25.978399
3.2388401 47.314098 -25.4541
3.0978 47.8978 -25.792801
12.3886 47.783001 -26.2756
-20.436001 48.7038 -23.898701
-19.9603 48.794498 -24.2896
-11.2584 48.852402 -24.8001
-10.4641 48.783798 -24.986401
-8.8015699 48.6273 -25.4391
3.0146301 48.7341 -26.132999
3.93858 48.709 -25.9314
4.87466 48.701302 -25.694799
-19.943199 49.2817 -23.8598
-18.874599 49.644199 -24.0368
-13.28 49.374802 -24.4165
-12.3537 48.696899 -24.369301
-12.2345 49.474499 -24.9303
-11.4408 49.565701 -25.200199
-10.5686 49.361198 -25.286301
2.8523099 49.629902 -26.553499
3.7521801 49.418701 -26.198299
4.5939898 49.5019 -26.066999
11.2545 49.402 -26.431
11.941 48.777802 -26.2663
11.7902 49.530201 -25.994301
-15.1443 49.882801 -24.450199
-14.0222 49.901501 -24.8354
-13.1108 49.970699 -25.3029
6.6524601 49.966099 -25.853701
7.5878201 50.1129 -25.858
8.5114698 50.186699 -25.905399
9.4220695 50.287399 -25.954399
10.3317 50.184399 -26.0152
11.2012 49.8913 -26.011499
-6.40167 -36.158901 -24.5322
-5.40029 -36.140499 -24.820299
-4.4557199 -36.119099 -24.915199
-3.4649301 -36.173302 -25.0541
-2.4581299 -36.355999 -24.998301
-2.8022201 -36.097599 -25.582399
-1.5298899 -36.414299 -25.025801
-1.9098099 -36.061699 -25.6919
-0.61210102 -36.401699 -25.0333
-0.90815598 -36.0172 -25.579599
0.285808 -36.396999 -25.049
0.023602 -35.997101 -25.500299
1.0992399 -36.3955 -25.0371
0.92814302 -36.001499 -25.434999
-9.8630505 -35.278999 -24.4862
-8.8289299 -35.644699 -24.6231
-8.9223003 -35.172401 -24.984301
-7.9295902 -35.761299 -24.789301
-7.1049299 -35.864498 -24.9282
0.85074902 -35.2444 -25.7159
1.78043 -35.281601 -25.6171
2.7876699 -35.412899 -25.4541
3.7433801 -35.170799 -25.4695
-10.7544 -34.2644 -24.520399
-9.9345903 -34.378502 -24.893499
-9.1274796 -34.433601 -25.2232
-0.091114998 -35.227501 -25.829599
1.02554 -34.730999 -25.834801
3.1039801 -34.323502 -25.8295
4.5411301 -35.280701 -25.316401
4.4748902 -34.4333 -25.672899
5.3144698 -34.532398 -25.555799
5.7706099 -34.127602 -25.5467
2.52455 -33.4207 -26.1007
3.5265701 -33.515202 -26.025299
4.3180699 -33.688702 -25.886
5.2322502 -33.6371 -25.689899
-10.8226 -33.091202 -24.7922
3.4382401 -32.439701 -26.2059
4.4495001 -32.861301 -25.932699
5.5179901 -32.569599 -25.465799
-10.9316 -31.6369 -25.078699
3.8136899 -31.525499 -26.0739
4.5248199 -31.9034 -25.811399
6.2692099 -31.707899 -25.005899
-11.6268 -30.5805 -24.863501
3.5945301 -30.6513 -26.024799
4.6877999 -30.853701 -25.624901
-12.5193 -29.673401 -24.5016
-11.5793 -29.6336 -24.964899
3.76701 -29.7094 -25.880699
4.5975299 -29.8645 -25.608801
-12.5982 -28.627399 -24.5319
-11.7188 -28.857201 -24.8545
-10.7703 -28.935699 -25.1817
-9.3860598 -28.819401 -25.464001
3.60779 -28.9244 -25.9174
5.1888399 -29.0231 -25.4737
-12.966 -28.052099 -24.388201
-11.7066 -27.971201 -24.7626
-10.9632 -28.156601 -25.0499
-10.0343 -28.091101 -25.3039
3.56496 -28.016399 -25.993401
4.5047102 -28.085899 -25.7915
5.4276299 -28.1038 -25.5543
-12.5494 -27.0658 -24.427
-11.6878 -27.0811 -24.7276
-10.7364 -27.2111 -25.0851
3.57358 -27.1127 -26.065201
4.48803 -27.200199 -25.911501
5.26546 -27.3435 -25.7295
6.2048402 -27.1371 -25.4298
-12.5839 -26.184 -24.3309
-11.7193 -26.2003 -24.6984
4.5198202 -26.290899 -25.8955
5.4032698 -26.508499 -25.7001
6.66608 -26.059 -25.2068
-11.7172 -25.3202 -24.710699
-10.9378 -25.978901 -25.0228
3.5378201 -25.660299 -26.071899
4.5388498 -25.371401 -25.8571
5.5658698 -25.4646 -25.537701
-10.7795 -24.059299 -25.1535
3.6036 -24.4515 -26.121201
4.5405202 -24.4608 -25.880699
5.49017 -24.4797 -25.538799
4.5261698 -23.5443 -25.880501
-10.8051 -21.6579 -25.2017
4.5216899 -22.614901 -25.8582
6.0619001 -22.826799 -25.326799
-11.7981 -23.064301 -24.773399
5.4904399 -21.5467 -25.5464
-11.591 -20.750099 -24.903299
4.3164501 -20.619699 -25.901699
6.0430298 -19.167101 -25.474899
5.1208301 -18.1241 -25.819
-11.7578 -17.337 -24.982201
5.4854798 -17.253901 -25.786501
6.4454002 -17.354601 -25.471701
-12.4016 -17.4597 -24.691999
4.4822898 -16.743099 -26.102501
5.4408002 -16.348101 -25.848
-11.6654 -15.3285 -25.0222
5.2815399 -15.5824 -25.896
-13.1959 -15.4535 -24.3234
5.4342699 -14.7435 -25.8102
6.3253198 -16.266899 -25.534401
6.5071602 -14.4491 -25.3792
-13.5803 -13.8889 -24.197901
-12.4717 -13.6225 -24.738701
5.6630602 -13.5814 -25.695299
-12.808 -12.3541 -24.598301
5.2577 -12.6579 -25.851801
6.4570198 -12.7149 -25.451799
6.4591098 -11.8181 -25.52
6.15484 -10.7203 -25.665501
-13.2907 -10.6078 -24.433599
-12.8744 -8.9883099 -24.689501
7.3222299 -9.0448303 -25.3627
-14.2751 -7.45678 -23.976299
6.4057002 -8.7411699 -25.712601
-13.3688 -7.4540901 -24.445101
-11.9248 -7.2315502 -25.1273
5.5756698 -7.43682 -26.014999
6.41854 -7.54849 -25.7589
7.2607899 -7.8449998 -25.429399
-14.3201 -5.7077498 -24.041201
-12.2527 -5.8670702 -25.0516
6.39188 -6.6283398 -25.7449
6.7894301 -5.9862199 -25.558399
-14.4614 -3.0901301 -24.021799
-13.4645 -5.6324301 -24.497601
5.9223499 -4.5563102 -25.8584
7.27075 -5.0633302 -25.349001
-13.3588 -3.05984 -24.5905
6.3686399 -3.5982299 -25.7379
7.3705301 -2.51934 -25.4391
-13.4415 -1.21092 -24.653099
-13.3519 1.52622 -24.7047
7.4520402 -0.63888401 -25.477501
6.3696599 -0.67160702 -25.869301
8.1694202 0.90813899 -25.279499
-14.2458 1.546 -24.245199
6.47261 1.68659 -25.973499
7.3578801 1.39912 -25.6429
8.2607403 1.94267 -25.241501
-15.0788 4.0957999 -23.8846
6.4717398 2.60093 -25.9928
7.3635898 2.3912899 -25.6434
8.5133495 2.72721 -25.090599
-13.3202 3.99933 -24.819
-14.2258 3.62994 -24.3445
7.5889401 4.50453 -25.4858
-14.2771 5.8480802 -24.380699
7.2290902 6.33495 -25.680901
-14.2565 8.0344696 -24.4498
8.3067303 7.6504698 -25.3092
-15.1057 8.4769602 -23.990801
7.4442201 8.6876297 -25.7101
7.4540801 10.7696 -25.809601
8.3919802 10.6226 -25.451599
7.454 11.6573 -25.841101
8.39083 11.6118 -25.425699
-15.0753 11.6105 -24.093399
-14.1575 14.1782 -24.653799
7.3619499 12.8307 -25.8736
8.6117697 13.3077 -25.2796
8.0907202 14.5444 -25.5301
-16.011499 18.2104 -23.743
-14.904 14.6013 -24.254101
7.47082 16.3379 -25.8211
9.2332497 17.590599 -25.1425
-15.1416 18.319401 -24.2635
8.2794504 17.244301 -25.5448
9.3247604 19.6947 -25.218901
-16.031799 20.084 -23.757999
-14.9894 21.725599 -24.4181
9.3220997 20.976101 -25.236601
8.2796097 21.111401 -25.7365
9.3148298 23.193501 -25.200399
-14.9617 26.323999 -24.5546
-15.9416 24.251301 -23.9266
8.4889002 23.780899 -25.5977
-16.660999 26.4132 -23.552099
-15.8139 26.8298 -24.084101
8.4567204 26.696899 -25.7013
-16.863199 30.329901 -23.5378
9.4372702 25.989901 -25.2488
-15.6291 28.6068 -24.2258
-15.8608 32.382599 -24.189899
9.4547701 30.1359 -25.3727
-16.7444 33.523399 -23.657101
-15.7553 33.426201 -24.2351
-16.7659 34.605 -23.616199
-15.5718 34.270401 -24.267599
9.4039297 34.2836 -25.401899
-16.802601 35.509399 -23.596901
-16.0753 35.194698 -23.945999
10.2325 35.1805 -25.054701
-16.939501 36.3153 -23.628099
-16.074699 36.167198 -24.080799
9.3489504 36.117699 -25.617201
10.1744 36.006302 -25.2201
-17.670601 36.968102 -23.468399
-16.897499 36.93 -23.9666
10.6115 36.489201 -25.236401
10.2561 36.906399 -25.634199
11.2078 37.020199 -25.3929
-19.410601 37.882301 -23.1565
-18.4998 37.486801 -23.3316
12.0922 37.973301 -25.7822
-20.6066 38.891201 -23.742901
-20.0723 38.208801 -23.152599
13.0389 37.8619 -25.211599
-22.019699 39.4827 -23.2812
-22.282301 40.013599 -23.357401
14.8199 39.176701 -25.4205
14.7922 39.701302 -25.7817
15.6472 39.567799 -25.180099
-23.0138 40.462601 -22.782801
-21.700199 40.941502 -24.000401
15.8678 40.555 -25.440399
-21.831499 41.8507 -23.830299
-22.018299 42.6493 -23.424
16.1661 42.2104 -25.5179
-22.120501 43.4258 -23.0851
-21.203699 43.2603 -23.9452
15.7892 43.216301 -25.7903
-22.1161 44.978699 -22.792
-21.281 44.326599 -23.592501
15.6274 44.254002 -25.813999
-21.363001 45.347801 -23.3827
15.6143 45.131001 -25.622999
-21.2757 46.406399 -23.3937
-10.2361 45.8866 -23.4585
-10.537 46.328899 -23.971201
-9.1550903 45.882301 -23.632299
-9.6934605 46.243999 -24.114901
-8.7783298 46.1637 -24.2498
-7.1902299 45.885101 -23.789801
-7.7852101 46.127499 -24.329901
-5.5963001 45.874802 -23.9779
-6.08255 46.123001 -24.549299
-4.6666398 45.880001 -24.0821
-5.0932698 46.278702 -24.893299
-3.4332399 45.893902 -24.118799
-3.9553399 46.270401 -24.9638
-3.2335501 46.056702 -24.568899
-2.3089399 46.0247 -24.332899
-0.86797798 46.0858 -24.377701
14.9503 45.911598 -25.5312
15.7848 45.464298 -25.368999
-13.0231 46.959301 -23.4744
-12.0542 46.578899 -23.666599
-12.0633 47.160301 -23.9694
-11.3357 46.124001 -23.4809
-11.2929 46.853001 -24.062599
1.14771 46.2845 -24.5035
2.36608 46.466202 -24.617201
2.3182199 47.112 -25.4272
3.4082501 46.507801 -24.5179
3.04742 46.868599 -25.093
4.2680001 46.597301 -24.4816
3.9932001 47.0681 -25.0681
5.1409798 46.972 -24.723499
13.9666 46.8494 -25.550501
-21.055901 48.201302 -23.455999
-13.9616 47.7327 -23.2973
-12.4295 47.851601 -24.040001
4.34901 47.875198 -25.498301
5.8880601 47.826801 -25.1085
6.6615701 47.833302 -24.8715
13.8339 47.807701 -25.3141
-21.2544 48.862301 -23.081699
5.79988 48.695099 -25.4261
12.9465 48.571301 -25.6873
13.7762 48.673698 -25.075899
-21.180201 49.342201 -22.690399
-14.7848 49.313801 -23.5574
-15.7638 49.5774 -23.476999
-14.9707 49.622898 -23.836201
-14.3221 49.535 -24.067699
5.6441202 49.576302 -25.867701
6.5443401 49.395 -25.427299
12.3457 49.336102 -25.689899
13.0627 49.421001 -25.192301
-17.7113 49.833401 -23.0161
-16.836399 49.827202 -23.3319
8.5172997 49.9044 -25.1082
9.4612703 50.1563 -25.072901
10.3876 50.272202 -25.111
11.2827 50.1744 -25.1793
12.1585 49.8484 -25.2693
-9.7147903 -36.303501 -23.4039
-10.7324 -35.982601 -23.5264
-9.8900299 -36.000401 -23.937401
-8.72087 -36.291698 -23.548401
-9.1866302 -36.016899 -24.063499
-7.8122301 -36.2696 -23.6439
-8.2812405 -36.070999 -24.1633
-6.91752 -36.290001 -23.745001
-7.3898201 -36.113701 -24.338699
-5.5657001 -36.324299 -23.8459
-3.82903 -36.298901 -24.056299
-2.62007 -36.371201 -24.150101
-1.3746901 -36.444901 -24.2789
0.106836 -36.491901 -24.299801
1.00673 -36.535801 -24.357901
1.98045 -36.503502 -24.4891
1.8322001 -36.056999 -25.242901
3.0118999 -36.469299 -24.411301
2.6324799 -36.166901 -24.9757
3.86605 -36.4132 -24.3664
3.59603 -35.978699 -24.976101
4.7929001 -36.092499 -24.6105
-12.9682 -35.2658 -23.299
-12.3688 -35.2057 -23.495001
-11.5535 -35.5816 -23.587799
-11.0091 -35.163898 -24.0418
5.7246799 -35.881001 -24.7073
5.4577198 -35.291401 -25.1868
6.5504699 -35.791302 -24.6003
6.36696 -35.245201 -25.0252
7.3240099 -35.2635 -24.619301
-12.5691 -34.141998 -23.673901
-11.6941 -34.5327 -23.987
6.11832 -34.521 -25.3673
7.0347199 -34.418598 -24.945101
-11.7554 -33.318001 -24.233999
6.25668 -33.608398 -25.2882
7.3931699 -33.417702 -24.646
-13.5448 -33.5312 -23.306499
-12.9586 -32.8316 -23.672501
6.5281301 -32.733501 -25.003
7.3325901 -32.381001 -24.5495
-13.5976 -31.558201 -23.4988
-12.5105 -32.235401 -24.030701
-13.4339 -30.480801 -23.8139
6.2533302 -30.7512 -24.9666
-14.2834 -29.711599 -23.4216
5.62392 -29.938601 -25.2358
7.1575499 -29.806601 -24.685301
-14.474 -28.7313 -23.5902
-13.5377 -28.953501 -24.074499
6.7715702 -29.154499 -24.9373
-15.097 -27.8717 -23.379101
-14.1267 -27.9618 -23.9147
6.33675 -28.134501 -25.2938
7.1347299 -28.257 -25.0152
8.0524197 -28.0341 -24.7026
-15.6361 -27.1693 -23.129101
-15.0414 -26.944 -23.4471
-14.3053 -27.0541 -23.7686
-13.3984 -27.0709 -24.120701
7.2304602 -27.432301 -25.082001
8.18472 -27.0084 -24.6908
-15.2854 -26.244499 -23.178499
-14.342 -26.1646 -23.586201
-13.4587 -26.177601 -23.9624
-14.4385 -25.2048 -23.4121
-13.005 -25.307199 -24.1136
7.3083601 -25.367399 -24.8873
-14.0934 -24.318001 -23.5937
7.3428702 -24.450899 -24.833
-12.9735 -22.6616 -24.250799
-14.3556 -21.584299 -23.5438
-13.093 -20.589001 -24.2293
7.1872602 -23.1001 -24.905001
8.09128 -21.3382 -24.628599
6.39784 -21.1959 -25.2701
-15.2506 -17.136801 -23.1644
-13.2934 -17.2995 -24.2519
7.4167399 -19.271601 -24.994699
-14.2854 -18.661501 -23.672501
7.2912502 -18.1647 -25.1227
8.3612804 -18.968399 -24.639799
7.1646399 -17.4179 -25.198299
8.1326199 -17.8743 -24.764299
